ply
format ascii 1.0
element vertex 1716
property float x
property float y
property float z
property uchar red
property uchar green
property uchar blue
end_header
75.0 -227.0 70.1 69 64 57
76.0 -227.0 70.1 68 65 59
77.0 -227.0 71.0 66 62 55
78.0 -227.0 71.8 70 64 59
79.0 -227.0 72.6 52 48 48
80.0 -227.0 75.1 6 15 11
81.0 -227.0 76.0 15 22 19
82.0 -227.0 79.3 9 17 15
83.0 -227.0 79.3 7 13 12
84.0 -227.0 80.1 9 18 15
85.0 -227.0 80.1 10 18 14
86.0 -227.0 80.1 7 16 12
87.0 -227.0 80.1 6 16 10
88.0 -227.0 80.1 49 56 47
89.0 -227.0 80.1 82 75 68
90.0 -227.0 80.1 66 67 58
91.0 -227.0 79.3 71 68 61
92.0 -227.0 79.3 71 71 63
93.0 -227.0 78.5 70 67 61
94.0 -227.0 76.0 70 68 61
95.0 -227.0 74.3 68 65 59
96.0 -227.0 74.3 71 68 62
97.0 -227.0 75.1 72 65 59
98.0 -227.0 75.1 71 68 62
99.0 -227.0 75.1 68 66 58
100.0 -227.0 75.1 70 68 61
101.0 -227.0 75.1 71 67 58
102.0 -227.0 75.1 69 66 60
103.0 -227.0 75.1 70 67 59
104.0 -227.0 75.1 69 68 59
105.0 -227.0 75.1 70 65 56
106.0 -227.0 75.1 71 67 57
107.0 -227.0 75.1 68 64 58
108.0 -227.0 75.1 71 69 59
109.0 -227.0 75.1 68 65 57
110.0 -227.0 75.1 68 66 59
111.0 -227.0 75.1 67 65 58
112.0 -227.0 75.1 67 66 58
113.0 -227.0 75.1 69 64 56
114.0 -227.0 75.1 67 66 55
115.0 -227.0 76.0 68 68 58
116.0 -227.0 77.6 69 69 58
117.0 -227.0 80.1 68 71 57
118.0 -227.0 81.8 69 70 58
119.0 -227.0 81.8 49 49 42
120.0 -227.0 82.6 4 14 10
121.0 -227.0 83.5 23 29 28
122.0 -227.0 83.5 13 21 18
123.0 -227.0 83.5 26 34 28
129.0 -227.0 131.9 34 43 34
130.0 -227.0 133.6 33 35 36
131.0 -227.0 133.6 10 20 17
132.0 -227.0 134.4 22 28 32
133.0 -227.0 136.1 124 135 116
134.0 -227.0 137.7 226 230 223
135.0 -227.0 137.7 205 190 173
136.0 -227.0 136.9 213 188 181
137.0 -227.0 136.1 164 144 134
138.0 -227.0 136.1 161 146 133
139.0 -227.0 136.9 164 148 135
140.0 -227.0 136.9 163 148 135
141.0 -227.0 136.9 161 146 131
142.0 -227.0 137.7 164 149 136
143.0 -227.0 137.7 162 145 133
144.0 -227.0 138.6 162 146 131
145.0 -227.0 138.6 162 147 132
146.0 -227.0 138.6 168 152 139
147.0 -227.0 139.4 165 149 136
148.0 -227.0 139.4 167 151 138
149.0 -227.0 139.4 166 152 136
150.0 -227.0 138.6 167 153 137
151.0 -227.0 137.7 167 151 136
152.0 -227.0 137.7 166 152 136
153.0 -227.0 136.9 166 149 135
154.0 -227.0 136.9 168 151 137
155.0 -227.0 137.7 167 151 138
156.0 -227.0 137.7 166 153 139
157.0 -227.0 138.6 166 152 138
158.0 -227.0 138.6 167 151 138
159.0 -227.0 138.6 165 149 134
160.0 -227.0 138.6 154 138 125
161.0 -227.0 138.6 141 128 111
162.0 -227.0 138.6 145 130 115
163.0 -227.0 138.6 141 127 111
164.0 -227.0 137.7 142 128 114
165.0 -227.0 137.7 141 125 109
166.0 -227.0 138.6 142 126 109
167.0 -227.0 139.4 138 123 107
168.0 -227.0 139.4 134 119 103
169.0 -227.0 138.6 128 113 96
170.0 -227.0 137.7 130 116 98
171.0 -227.0 137.7 130 115 94
172.0 -227.0 136.9 131 116 97
173.0 -227.0 136.1 129 114 94
174.0 -227.0 135.2 127 114 96
175.0 -227.0 135.2 126 113 93
176.0 -227.0 134.4 126 113 95
177.0 -227.0 134.4 126 113 93
178.0 -227.0 133.6 131 122 105
179.0 -227.0 133.6 147 135 117
180.0 -227.0 133.6 172 158 136
181.0 -227.0 133.6 175 153 134
182.0 -227.0 131.9 102 73 57
183.0 -227.0 131.1 73 55 25
184.0 -227.0 112.7 71 51 31
185.0 -227.0 112.7 47 37 18
186.0 -227.0 112.7 34 30 14
187.0 -227.0 111.9 35 31 18
188.0 -227.0 111.9 35 32 16
189.0 -227.0 111.9 33 29 15
190.0 -227.0 111.9 35 31 20
191.0 -227.0 113.5 33 30 16
192.0 -227.0 117.7 33 32 18
193.0 -227.0 121.9 31 29 14
194.0 -227.0 122.7 34 31 18
195.0 -227.0 121.9 32 30 15
196.0 -227.0 117.7 33 31 16
197.0 -227.0 113.5 32 31 16
198.0 -227.0 111.0 32 31 16
199.0 -227.0 110.2 31 28 14
200.0 -227.0 110.2 34 31 16
201.0 -227.0 110.2 31 29 13
202.0 -227.0 111.0 31 32 17
203.0 -227.0 111.0 31 28 15
204.0 -227.0 111.0 31 31 17
205.0 -227.0 110.2 30 29 15
206.0 -227.0 110.2 32 31 17
207.0 -227.0 109.4 32 28 15
208.0 -227.0 108.5 33 31 18
209.0 -227.0 108.5 33 30 17
210.0 -227.0 108.5 33 30 17
211.0 -227.0 108.5 32 29 15
212.0 -227.0 108.5 32 30 17
213.0 -227.0 108.5 31 29 14
214.0 -227.0 107.7 32 32 17
215.0 -227.0 107.7 33 30 13
216.0 -227.0 107.7 34 30 17
217.0 -227.0 107.7 34 29 15
218.0 -227.0 107.7 35 30 16
219.0 -227.0 108.5 34 30 16
220.0 -227.0 108.5 33 32 17
221.0 -227.0 109.4 33 30 15
222.0 -227.0 109.4 33 32 17
223.0 -227.0 109.4 34 31 15
224.0 -227.0 109.4 36 32 16
225.0 -227.0 109.4 35 30 15
226.0 -227.0 109.4 33 30 15
227.0 -227.0 109.4 35 31 16
228.0 -227.0 108.5 34 32 15
229.0 -227.0 109.4 36 32 16
230.0 -227.0 109.4 38 33 18
231.0 -227.0 109.4 38 32 16
232.0 -227.0 109.4 40 35 17
233.0 -227.0 109.4 38 32 16
234.0 -227.0 109.4 39 33 18
235.0 -227.0 109.4 40 33 16
236.0 -227.0 109.4 40 33 16
237.0 -227.0 110.2 41 34 15
238.0 -227.0 110.2 40 33 17
239.0 -227.0 110.2 38 31 16
240.0 -227.0 109.4 38 34 17
241.0 -227.0 109.4 37 31 13
242.0 -227.0 109.4 35 32 16
243.0 -227.0 109.4 35 31 15
244.0 -227.0 108.5 35 32 17
245.0 -227.0 107.7 32 29 15
246.0 -227.0 107.7 35 31 18
247.0 -227.0 107.7 33 29 15
248.0 -227.0 107.7 32 32 17
249.0 -227.0 106.9 30 31 15
250.0 -227.0 107.7 32 30 17
251.0 -227.0 107.7 31 29 14
252.0 -227.0 107.7 34 32 16
253.0 -227.0 107.7 33 30 14
254.0 -227.0 107.7 33 31 16
255.0 -227.0 107.7 31 29 15
256.0 -227.0 107.7 32 32 18
257.0 -227.0 107.7 34 31 16
258.0 -227.0 107.7 33 30 17
259.0 -227.0 107.7 32 30 15
260.0 -227.0 107.7 33 33 16
261.0 -227.0 107.7 34 30 15
262.0 -227.0 107.7 35 31 16
263.0 -227.0 107.7 35 29 15
264.0 -227.0 107.7 36 30 18
265.0 -227.0 107.7 32 29 14
266.0 -227.0 107.7 41 37 18
267.0 -227.0 107.7 54 45 21
268.0 -227.0 107.7 70 58 31
269.0 -227.0 106.9 79 61 33
270.0 -227.0 106.9 80 62 32
271.0 -227.0 106.9 81 62 32
272.0 -227.0 106.9 82 63 36
273.0 -227.0 106.9 80 61 32
274.0 -227.0 106.9 80 63 33
275.0 -227.0 106.9 78 63 31
276.0 -227.0 106.9 79 62 33
277.0 -227.0 106.9 77 57 27
278.0 -227.0 106.9 80 61 30
279.0 -227.0 106.9 80 61 29
280.0 -227.0 106.9 81 63 30
281.0 -227.0 106.9 82 60 29
282.0 -227.0 106.9 80 61 30
283.0 -227.0 106.9 78 60 28
284.0 -227.0 106.9 78 60 29
285.0 -227.0 106.9 79 60 29
286.0 -227.0 106.9 86 65 32
287.0 -227.0 106.9 82 61 30
288.0 -227.0 106.9 82 61 30
289.0 -227.0 106.9 80 59 25
290.0 -227.0 106.9 79 61 28
291.0 -227.0 106.9 76 57 27
292.0 -227.0 106.9 78 61 28
293.0 -227.0 106.9 79 59 27
294.0 -227.0 106.9 80 62 33
295.0 -227.0 106.9 79 58 30
296.0 -227.0 106.9 77 60 31
297.0 -227.0 107.7 77 58 30
298.0 -227.0 107.7 78 60 32
299.0 -227.0 107.7 76 59 29
300.0 -227.0 107.7 76 60 29
301.0 -227.0 107.7 75 58 28
302.0 -227.0 106.9 72 56 28
303.0 -227.0 106.9 72 54 27
304.0 -227.0 106.9 73 58 28
305.0 -227.0 106.9 71 54 27
306.0 -227.0 106.9 71 55 27
307.0 -227.0 106.9 68 52 24
308.0 -227.0 106.9 71 55 29
309.0 -227.0 106.9 70 52 26
310.0 -227.0 106.9 73 56 27
311.0 -227.0 106.9 77 56 27
312.0 -227.0 106.9 80 60 30
313.0 -227.0 106.9 83 61 27
314.0 -227.0 106.9 85 66 32
315.0 -227.0 106.9 87 66 34
316.0 -227.0 107.7 87 67 36
317.0 -227.0 107.7 84 66 33
318.0 -227.0 107.7 86 68 35
319.0 -227.0 107.7 85 65 32
320.0 -227.0 107.7 84 65 33
321.0 -227.0 106.9 81 61 28
322.0 -227.0 106.9 80 61 30
323.0 -227.0 106.9 78 59 27
324.0 -227.0 106.9 76 58 31
325.0 -227.0 106.9 74 57 28
326.0 -227.0 106.9 77 58 31
327.0 -227.0 106.9 77 57 27
328.0 -227.0 106.9 77 59 30
329.0 -227.0 106.9 75 56 27
330.0 -227.0 106.9 77 60 31
331.0 -227.0 106.9 75 57 28
332.0 -227.0 106.9 75 58 27
333.0 -227.0 106.9 75 58 27
334.0 -227.0 106.9 77 61 31
335.0 -227.0 107.7 78 59 29
336.0 -227.0 106.9 77 59 30
337.0 -227.0 106.9 75 56 28
338.0 -227.0 106.9 78 58 29
339.0 -227.0 106.9 79 58 27
340.0 -227.0 106.9 76 57 25
341.0 -227.0 106.9 70 54 25
342.0 -227.0 106.9 73 56 27
343.0 -227.0 106.9 70 55 27
344.0 -227.0 107.7 73 60 33
345.0 -227.0 107.7 74 63 42
346.0 -227.0 107.7 65 58 33
347.0 -227.0 107.7 65 53 27
348.0 -227.0 107.7 62 52 22
349.0 -227.0 107.7 63 54 26
350.0 -227.0 106.9 61 53 35
351.0 -227.0 106.9 24 30 26
352.0 -227.0 106.0 9 26 23
353.0 -227.0 105.2 14 27 24
354.0 -227.0 72.6 16 28 27
362.0 -227.0 71.0 14 30 28
363.0 -227.0 71.8 14 29 24
364.0 -227.0 71.8 15 30 27
365.0 -227.0 71.0 15 28 26
369.0 -227.0 74.3 16 29 26
370.0 -227.0 78.5 18 30 28
371.0 -227.0 77.6 17 31 27
372.0 -227.0 76.0 17 31 30
373.0 -227.0 76.0 17 31 28
374.0 -227.0 79.3 19 34 30
375.0 -227.0 79.3 19 31 27
376.0 -227.0 79.3 19 32 29
377.0 -227.0 76.0 21 32 27
48.0 -228.0 66.8 61 60 51
49.0 -228.0 66.8 59 59 50
50.0 -228.0 66.8 57 58 51
51.0 -228.0 66.8 56 58 48
52.0 -228.0 66.8 58 59 50
53.0 -228.0 66.8 56 58 47
54.0 -228.0 66.8 51 54 46
55.0 -228.0 67.6 42 45 35
56.0 -228.0 67.6 34 42 29
57.0 -228.0 67.6 32 37 29
58.0 -228.0 67.6 36 42 36
59.0 -228.0 68.5 47 48 41
60.0 -228.0 68.5 57 56 48
61.0 -228.0 68.5 59 58 50
62.0 -228.0 68.5 61 61 53
63.0 -228.0 68.5 60 60 50
64.0 -228.0 68.5 63 62 53
65.0 -228.0 68.5 62 60 51
66.0 -228.0 68.5 63 63 55
67.0 -228.0 68.5 61 60 53
68.0 -228.0 69.3 63 63 53
69.0 -228.0 69.3 61 61 52
70.0 -228.0 69.3 62 64 55
71.0 -228.0 69.3 62 62 52
72.0 -228.0 69.3 65 64 55
73.0 -228.0 70.1 62 60 52
74.0 -228.0 70.1 63 62 53
75.0 -228.0 70.1 64 62 54
76.0 -228.0 71.0 64 64 57
77.0 -228.0 71.0 65 64 55
78.0 -228.0 72.6 64 64 56
79.0 -228.0 73.5 32 35 31
80.0 -228.0 76.0 5 16 12
81.0 -228.0 77.6 15 22 19
82.0 -228.0 79.3 9 17 15
83.0 -228.0 80.1 6 14 10
84.0 -228.0 80.1 9 19 17
85.0 -228.0 80.1 10 16 14
86.0 -228.0 80.1 8 14 15
87.0 -228.0 80.1 14 22 16
88.0 -228.0 80.1 65 66 58
89.0 -228.0 80.1 63 62 54
90.0 -228.0 80.1 64 63 57
91.0 -228.0 80.1 59 61 52
92.0 -228.0 80.1 62 63 55
93.0 -228.0 79.3 62 60 51
94.0 -228.0 76.0 61 61 52
95.0 -228.0 76.0 61 62 53
96.0 -228.0 76.0 60 63 53
97.0 -228.0 76.0 59 60 51
98.0 -228.0 76.8 60 61 52
99.0 -228.0 76.8 59 61 51
100.0 -228.0 76.8 60 61 52
101.0 -228.0 76.8 58 58 50
102.0 -228.0 76.8 59 58 50
103.0 -228.0 76.8 59 60 51
104.0 -228.0 76.8 59 58 51
105.0 -228.0 76.8 57 58 48
106.0 -228.0 76.8 57 59 50
107.0 -228.0 76.8 56 56 49
108.0 -228.0 76.8 56 58 51
109.0 -228.0 76.8 55 56 47
110.0 -228.0 76.8 54 57 47
111.0 -228.0 76.8 52 54 45
112.0 -228.0 76.8 53 56 47
113.0 -228.0 76.8 52 54 44
114.0 -228.0 76.8 52 55 45
115.0 -228.0 76.8 49 52 45
116.0 -228.0 78.5 51 55 47
117.0 -228.0 80.1 48 51 43
118.0 -228.0 81.8 49 52 45
119.0 -228.0 82.6 37 36 31
120.0 -228.0 82.6 10 20 13
121.0 -228.0 83.5 22 30 26
122.0 -228.0 83.5 11 21 19
123.0 -228.0 86.0 21 30 26
124.0 -228.0 86.0 28 34 31
130.0 -228.0 132.7 26 31 29
131.0 -228.0 133.6 12 23 21
132.0 -228.0 133.6 22 27 31
133.0 -228.0 135.2 128 139 118
134.0 -228.0 135.2 226 229 221
135.0 -228.0 135.2 206 191 172
136.0 -228.0 135.2 225 206 192
137.0 -228.0 135.2 210 191 177
138.0 -228.0 136.1 182 162 153
139.0 -228.0 136.1 176 156 146
140.0 -228.0 136.9 168 153 140
141.0 -228.0 136.9 166 149 135
142.0 -228.0 136.9 168 153 139
143.0 -228.0 137.7 167 151 137
144.0 -228.0 137.7 167 151 138
145.0 -228.0 137.7 166 149 136
146.0 -228.0 137.7 170 156 140
147.0 -228.0 138.6 169 154 139
148.0 -228.0 138.6 173 156 141
149.0 -228.0 138.6 173 156 140
150.0 -228.0 138.6 173 159 143
151.0 -228.0 137.7 172 157 141
152.0 -228.0 136.9 171 156 142
153.0 -228.0 136.9 170 155 141
154.0 -228.0 136.9 171 158 143
155.0 -228.0 136.9 169 154 140
156.0 -228.0 136.9 169 155 140
157.0 -228.0 137.7 170 154 140
158.0 -228.0 137.7 169 155 139
159.0 -228.0 137.7 166 149 135
160.0 -228.0 137.7 154 137 122
161.0 -228.0 137.7 148 133 115
162.0 -228.0 137.7 151 136 120
163.0 -228.0 137.7 149 133 116
164.0 -228.0 137.7 149 133 118
165.0 -228.0 137.7 146 129 114
166.0 -228.0 138.6 144 130 113
167.0 -228.0 138.6 141 125 108
168.0 -228.0 138.6 135 119 104
169.0 -228.0 137.7 131 116 99
170.0 -228.0 137.7 132 118 98
171.0 -228.0 136.9 130 117 97
172.0 -228.0 136.1 130 117 98
173.0 -228.0 136.1 126 113 93
174.0 -228.0 135.2 129 118 97
175.0 -228.0 134.4 129 116 97
176.0 -228.0 134.4 130 119 101
177.0 -228.0 133.6 150 137 118
178.0 -228.0 133.6 172 159 139
179.0 -228.0 133.6 179 163 143
180.0 -228.0 133.6 181 165 145
181.0 -228.0 133.6 177 156 138
182.0 -228.0 131.9 111 83 67
183.0 -228.0 131.1 70 53 23
184.0 -228.0 112.7 75 57 37
185.0 -228.0 112.7 47 37 19
186.0 -228.0 112.7 35 31 17
187.0 -228.0 111.9 34 31 17
188.0 -228.0 111.9 33 29 17
189.0 -228.0 111.9 34 29 16
190.0 -228.0 112.7 33 32 17
191.0 -228.0 115.2 32 29 15
192.0 -228.0 117.7 34 32 16
193.0 -228.0 121.9 33 32 16
194.0 -228.0 121.9 31 31 16
195.0 -228.0 121.9 33 30 15
196.0 -228.0 119.4 33 32 17
197.0 -228.0 113.5 32 27 15
198.0 -228.0 111.0 34 31 17
199.0 -228.0 110.2 30 28 13
200.0 -228.0 110.2 30 31 15
201.0 -228.0 111.0 31 29 14
202.0 -228.0 111.0 34 30 16
203.0 -228.0 111.0 32 30 14
204.0 -228.0 111.0 32 29 14
205.0 -228.0 110.2 30 29 13
206.0 -228.0 110.2 33 31 16
207.0 -228.0 109.4 32 28 13
208.0 -228.0 108.5 32 30 16
209.0 -228.0 108.5 33 30 16
210.0 -228.0 108.5 33 33 16
211.0 -228.0 108.5 30 29 15
212.0 -228.0 108.5 32 29 18
213.0 -228.0 108.5 32 29 16
214.0 -228.0 107.7 32 31 16
215.0 -228.0 107.7 33 31 16
216.0 -228.0 107.7 33 30 15
217.0 -228.0 107.7 34 31 16
218.0 -228.0 107.7 33 31 16
219.0 -228.0 108.5 33 31 14
220.0 -228.0 108.5 32 32 16
221.0 -228.0 109.4 33 31 16
222.0 -228.0 109.4 33 30 15
223.0 -228.0 110.2 35 29 15
224.0 -228.0 109.4 34 31 16
225.0 -228.0 109.4 35 30 14
226.0 -228.0 109.4 36 32 19
227.0 -228.0 109.4 34 30 13
228.0 -228.0 109.4 35 33 16
229.0 -228.0 109.4 36 32 15
230.0 -228.0 109.4 35 33 17
231.0 -228.0 109.4 35 30 14
232.0 -228.0 109.4 40 34 19
233.0 -228.0 109.4 36 32 14
234.0 -228.0 109.4 40 35 16
235.0 -228.0 109.4 36 32 14
236.0 -228.0 109.4 37 34 16
237.0 -228.0 109.4 37 33 14
238.0 -228.0 109.4 40 34 17
239.0 -228.0 109.4 38 31 14
240.0 -228.0 109.4 36 33 16
241.0 -228.0 109.4 37 32 15
242.0 -228.0 109.4 37 33 17
243.0 -228.0 109.4 36 30 14
244.0 -228.0 108.5 34 33 17
245.0 -228.0 107.7 33 29 14
246.0 -228.0 107.7 34 30 16
247.0 -228.0 107.7 33 29 15
248.0 -228.0 107.7 32 31 17
249.0 -228.0 106.9 33 29 13
250.0 -228.0 106.9 34 30 16
251.0 -228.0 107.7 31 30 15
252.0 -228.0 107.7 31 33 18
253.0 -228.0 107.7 31 30 13
254.0 -228.0 107.7 33 31 16
255.0 -228.0 108.5 30 29 15
256.0 -228.0 108.5 33 30 17
257.0 -228.0 108.5 35 31 16
258.0 -228.0 108.5 34 32 18
259.0 -228.0 108.5 33 31 15
260.0 -228.0 108.5 34 31 16
261.0 -228.0 108.5 33 31 15
262.0 -228.0 108.5 36 33 17
263.0 -228.0 107.7 35 32 14
264.0 -228.0 107.7 36 32 15
265.0 -228.0 107.7 35 31 14
266.0 -228.0 107.7 41 36 17
267.0 -228.0 107.7 54 46 21
268.0 -228.0 107.7 71 55 29
269.0 -228.0 107.7 78 59 33
270.0 -228.0 107.7 79 62 32
271.0 -228.0 107.7 80 61 30
272.0 -228.0 107.7 82 64 34
273.0 -228.0 107.7 80 61 30
274.0 -228.0 106.9 80 63 31
275.0 -228.0 106.9 77 61 29
276.0 -228.0 106.9 79 62 34
277.0 -228.0 106.9 75 57 26
278.0 -228.0 106.9 80 62 30
279.0 -228.0 106.9 82 62 30
280.0 -228.0 106.9 79 61 32
281.0 -228.0 106.9 78 59 29
282.0 -228.0 106.9 79 61 30
283.0 -228.0 106.9 75 59 26
284.0 -228.0 106.9 79 61 30
285.0 -228.0 106.9 81 61 29
286.0 -228.0 106.9 85 65 34
287.0 -228.0 106.9 78 59 26
288.0 -228.0 106.9 79 61 28
289.0 -228.0 106.9 79 58 27
290.0 -228.0 106.9 78 57 28
291.0 -228.0 106.9 76 59 26
292.0 -228.0 106.9 79 61 31
293.0 -228.0 106.9 77 58 30
294.0 -228.0 106.9 79 62 32
295.0 -228.0 106.9 75 59 28
296.0 -228.0 106.9 78 61 30
297.0 -228.0 106.9 76 59 27
298.0 -228.0 107.7 77 58 28
299.0 -228.0 107.7 75 57 27
300.0 -228.0 107.7 74 58 30
301.0 -228.0 106.9 72 55 28
302.0 -228.0 106.9 72 56 27
303.0 -228.0 106.9 70 53 27
304.0 -228.0 106.9 72 56 28
305.0 -228.0 106.9 70 54 26
306.0 -228.0 106.9 67 53 25
307.0 -228.0 106.9 68 51 24
308.0 -228.0 106.9 69 54 27
309.0 -228.0 106.9 69 52 24
310.0 -228.0 106.9 71 55 27
311.0 -228.0 106.9 76 59 27
312.0 -228.0 106.9 82 62 32
313.0 -228.0 106.9 83 63 30
314.0 -228.0 106.9 86 66 33
315.0 -228.0 106.9 88 67 30
316.0 -228.0 107.7 87 68 35
317.0 -228.0 107.7 85 67 34
318.0 -228.0 107.7 85 66 34
319.0 -228.0 107.7 84 64 31
320.0 -228.0 107.7 83 63 32
321.0 -228.0 106.9 81 61 31
322.0 -228.0 106.9 81 61 31
323.0 -228.0 106.9 80 63 30
324.0 -228.0 106.9 81 62 33
325.0 -228.0 106.9 77 59 27
326.0 -228.0 106.9 77 61 30
327.0 -228.0 106.9 77 60 30
328.0 -228.0 106.9 77 60 29
329.0 -228.0 106.9 78 60 28
330.0 -228.0 106.9 77 59 30
331.0 -228.0 106.9 74 56 26
332.0 -228.0 106.9 77 61 30
333.0 -228.0 106.9 74 58 29
334.0 -228.0 106.9 79 60 33
335.0 -228.0 107.7 77 57 30
336.0 -228.0 107.7 75 56 27
337.0 -228.0 106.9 77 56 24
338.0 -228.0 106.9 80 59 28
339.0 -228.0 106.9 79 57 25
340.0 -228.0 106.9 77 58 27
341.0 -228.0 106.9 70 53 25
342.0 -228.0 106.9 69 54 27
343.0 -228.0 106.9 69 55 26
344.0 -228.0 106.9 70 56 29
345.0 -228.0 106.9 70 54 26
346.0 -228.0 107.7 69 54 29
347.0 -228.0 107.7 62 49 25
348.0 -228.0 107.7 61 51 24
349.0 -228.0 107.7 64 54 26
350.0 -228.0 106.9 68 55 36
351.0 -228.0 106.9 24 28 23
352.0 -228.0 106.0 9 23 23
353.0 -228.0 105.2 14 27 26
364.0 -228.0 71.8 16 29 27
371.0 -228.0 77.6 14 29 25
372.0 -228.0 76.0 16 30 28
373.0 -228.0 77.6 17 31 27
374.0 -228.0 80.1 20 33 30
375.0 -228.0 80.1 17 30 28
376.0 -228.0 80.1 18 31 29
48.0 -229.0 66.8 27 37 26
49.0 -229.0 67.6 27 37 25
50.0 -229.0 67.6 25 37 25
51.0 -229.0 67.6 25 36 26
52.0 -229.0 67.6 25 38 26
53.0 -229.0 67.6 23 35 22
54.0 -229.0 67.6 21 32 22
55.0 -229.0 68.5 18 27 17
56.0 -229.0 68.5 14 24 16
57.0 -229.0 68.5 11 22 15
58.0 -229.0 69.3 17 28 18
59.0 -229.0 69.3 18 30 19
60.0 -229.0 69.3 22 36 23
61.0 -229.0 69.3 20 33 21
62.0 -229.0 69.3 21 35 23
63.0 -229.0 69.3 20 33 20
64.0 -229.0 69.3 21 35 24
65.0 -229.0 69.3 20 33 20
66.0 -229.0 69.3 19 34 21
67.0 -229.0 69.3 20 34 21
68.0 -229.0 69.3 19 33 19
69.0 -229.0 69.3 17 32 18
70.0 -229.0 69.3 18 35 21
71.0 -229.0 70.1 18 32 18
72.0 -229.0 70.1 18 32 20
73.0 -229.0 70.1 16 30 18
74.0 -229.0 71.0 18 32 20
75.0 -229.0 71.0 17 31 17
76.0 -229.0 71.8 15 31 18
77.0 -229.0 72.6 13 30 18
78.0 -229.0 75.1 16 32 18
79.0 -229.0 76.0 12 22 16
80.0 -229.0 77.6 12 21 17
81.0 -229.0 78.5 11 20 15
82.0 -229.0 80.1 8 15 14
83.0 -229.0 80.1 8 16 13
84.0 -229.0 80.1 11 18 16
85.0 -229.0 80.1 8 15 12
86.0 -229.0 80.1 6 13 11
87.0 -229.0 80.1 10 19 14
88.0 -229.0 80.1 15 31 19
89.0 -229.0 80.1 14 30 16
90.0 -229.0 80.1 14 30 18
91.0 -229.0 80.1 13 30 16
92.0 -229.0 80.1 13 31 17
93.0 -229.0 79.3 12 30 14
94.0 -229.0 76.0 12 30 16
95.0 -229.0 76.0 10 28 13
96.0 -229.0 76.0 10 28 14
97.0 -229.0 76.0 9 26 13
98.0 -229.0 76.8 8 27 15
99.0 -229.0 76.8 9 27 15
100.0 -229.0 76.8 9 28 16
101.0 -229.0 76.8 9 25 12
102.0 -229.0 76.8 9 27 13
103.0 -229.0 76.8 8 25 11
104.0 -229.0 76.8 10 26 14
105.0 -229.0 76.8 8 24 11
106.0 -229.0 76.8 7 25 14
107.0 -229.0 76.8 8 24 12
108.0 -229.0 76.8 8 25 13
109.0 -229.0 76.8 7 24 10
110.0 -229.0 76.8 8 26 12
111.0 -229.0 76.8 8 25 11
112.0 -229.0 76.8 8 27 13
113.0 -229.0 76.8 8 25 12
114.0 -229.0 76.8 9 26 14
115.0 -229.0 77.6 7 23 10
116.0 -229.0 78.5 8 25 13
117.0 -229.0 81.0 5 23 11
118.0 -229.0 81.8 8 24 13
119.0 -229.0 82.6 10 22 12
120.0 -229.0 83.5 14 24 22
121.0 -229.0 83.5 21 29 27
122.0 -229.0 84.3 13 21 19
123.0 -229.0 86.0 9 19 14
124.0 -229.0 92.7 12 23 19
125.0 -229.0 92.7 14 23 20
130.0 -229.0 132.7 14 24 20
131.0 -229.0 133.6 19 26 26
132.0 -229.0 133.6 20 28 31
133.0 -229.0 134.4 136 147 128
134.0 -229.0 135.2 226 229 219
135.0 -229.0 134.4 204 194 175
136.0 -229.0 134.4 226 208 196
137.0 -229.0 135.2 225 209 193
138.0 -229.0 135.2 221 200 183
139.0 -229.0 136.1 212 191 176
140.0 -229.0 136.1 194 176 163
141.0 -229.0 136.9 177 158 148
142.0 -229.0 136.9 171 155 143
143.0 -229.0 137.7 171 155 142
144.0 -229.0 137.7 169 157 142
145.0 -229.0 137.7 172 156 141
146.0 -229.0 137.7 175 160 145
147.0 -229.0 137.7 175 160 142
148.0 -229.0 137.7 179 164 148
149.0 -229.0 137.7 178 162 145
150.0 -229.0 137.7 177 163 147
151.0 -229.0 137.7 178 162 145
152.0 -229.0 136.9 180 164 147
153.0 -229.0 136.1 179 163 148
154.0 -229.0 136.1 180 164 150
155.0 -229.0 136.9 177 161 145
156.0 -229.0 136.9 176 162 146
157.0 -229.0 136.9 173 159 143
158.0 -229.0 137.7 173 158 142
159.0 -229.0 137.7 163 146 130
160.0 -229.0 137.7 154 139 122
161.0 -229.0 137.7 157 142 125
162.0 -229.0 137.7 158 143 127
163.0 -229.0 137.7 158 141 125
164.0 -229.0 136.9 153 138 122
165.0 -229.0 136.9 152 137 120
166.0 -229.0 137.7 154 139 122
167.0 -229.0 137.7 142 125 109
168.0 -229.0 137.7 134 120 103
169.0 -229.0 137.7 134 119 102
170.0 -229.0 136.9 132 119 103
171.0 -229.0 136.1 131 117 99
172.0 -229.0 136.1 132 119 100
173.0 -229.0 135.2 132 117 99
174.0 -229.0 134.4 135 122 106
175.0 -229.0 134.4 149 138 117
176.0 -229.0 134.4 174 161 140
177.0 -229.0 133.6 184 167 146
178.0 -229.0 133.6 182 166 146
179.0 -229.0 133.6 179 163 141
180.0 -229.0 133.6 181 167 145
181.0 -229.0 133.6 180 159 140
182.0 -229.0 132.7 115 85 73
183.0 -229.0 131.9 71 55 23
184.0 -229.0 112.7 82 60 41
185.0 -229.0 112.7 51 41 20
186.0 -229.0 112.7 35 30 14
187.0 -229.0 112.7 34 32 18
188.0 -229.0 111.9 31 31 15
189.0 -229.0 111.9 32 30 15
190.0 -229.0 112.7 32 31 18
191.0 -229.0 116.0 27 30 16
192.0 -229.0 120.2 32 31 17
193.0 -229.0 121.0 30 29 14
194.0 -229.0 121.9 34 31 18
195.0 -229.0 119.4 32 29 16
196.0 -229.0 114.4 33 31 17
197.0 -229.0 111.9 32 30 16
198.0 -229.0 110.2 32 30 16
199.0 -229.0 110.2 29 28 13
200.0 -229.0 110.2 32 30 17
201.0 -229.0 110.2 28 28 15
202.0 -229.0 111.0 31 31 17
203.0 -229.0 111.0 30 29 14
204.0 -229.0 110.2 33 30 17
205.0 -229.0 110.2 31 29 14
206.0 -229.0 109.4 32 31 16
207.0 -229.0 108.5 31 29 14
208.0 -229.0 108.5 34 32 17
209.0 -229.0 108.5 32 32 15
210.0 -229.0 108.5 31 32 18
211.0 -229.0 108.5 31 29 16
212.0 -229.0 108.5 31 31 17
213.0 -229.0 107.7 33 29 16
214.0 -229.0 107.7 33 32 18
215.0 -229.0 107.7 33 30 15
216.0 -229.0 107.7 32 29 16
217.0 -229.0 107.7 33 30 16
218.0 -229.0 107.7 33 32 19
219.0 -229.0 108.5 31 30 15
220.0 -229.0 108.5 32 31 16
221.0 -229.0 109.4 33 31 16
222.0 -229.0 110.2 33 32 16
223.0 -229.0 110.2 33 30 15
224.0 -229.0 109.4 33 30 17
225.0 -229.0 109.4 34 30 13
226.0 -229.0 109.4 36 32 17
227.0 -229.0 109.4 34 31 15
228.0 -229.0 109.4 33 32 17
229.0 -229.0 109.4 33 30 14
230.0 -229.0 109.4 34 32 15
231.0 -229.0 109.4 37 31 14
232.0 -229.0 109.4 39 35 19
233.0 -229.0 109.4 35 32 17
234.0 -229.0 109.4 37 34 18
235.0 -229.0 109.4 38 32 16
236.0 -229.0 109.4 38 35 17
237.0 -229.0 109.4 37 31 16
238.0 -229.0 109.4 38 32 17
239.0 -229.0 109.4 39 32 18
240.0 -229.0 109.4 38 33 17
241.0 -229.0 109.4 36 31 14
242.0 -229.0 109.4 34 32 15
243.0 -229.0 108.5 34 29 13
244.0 -229.0 107.7 35 31 16
245.0 -229.0 107.7 33 28 14
246.0 -229.0 107.7 33 29 16
247.0 -229.0 107.7 34 30 16
248.0 -229.0 106.9 33 32 17
249.0 -229.0 106.9 30 27 15
250.0 -229.0 106.9 33 31 16
251.0 -229.0 107.7 31 28 15
252.0 -229.0 107.7 33 31 16
253.0 -229.0 107.7 31 29 14
254.0 -229.0 107.7 32 31 16
255.0 -229.0 108.5 31 28 14
256.0 -229.0 108.5 35 30 19
257.0 -229.0 108.5 34 30 17
258.0 -229.0 108.5 34 33 18
259.0 -229.0 108.5 32 30 13
260.0 -229.0 108.5 34 33 16
261.0 -229.0 108.5 32 27 14
262.0 -229.0 108.5 34 30 15
263.0 -229.0 107.7 34 32 14
264.0 -229.0 107.7 34 32 15
265.0 -229.0 107.7 34 31 14
266.0 -229.0 107.7 44 40 19
267.0 -229.0 107.7 58 49 23
268.0 -229.0 107.7 74 59 31
269.0 -229.0 107.7 78 60 31
270.0 -229.0 107.7 82 63 35
271.0 -229.0 107.7 81 62 33
272.0 -229.0 107.7 80 62 33
273.0 -229.0 107.7 79 61 30
274.0 -229.0 106.9 81 64 32
275.0 -229.0 106.9 81 63 31
276.0 -229.0 106.9 80 60 30
277.0 -229.0 106.9 80 60 29
278.0 -229.0 106.9 80 61 30
279.0 -229.0 106.9 81 62 29
280.0 -229.0 106.9 82 62 32
281.0 -229.0 106.9 78 58 28
282.0 -229.0 106.9 79 59 31
283.0 -229.0 107.7 77 60 29
284.0 -229.0 107.7 80 62 32
285.0 -229.0 106.9 78 60 29
286.0 -229.0 106.9 85 64 36
287.0 -229.0 106.9 79 58 26
288.0 -229.0 106.9 82 61 29
289.0 -229.0 106.9 81 61 27
290.0 -229.0 106.9 81 61 32
291.0 -229.0 106.9 77 60 31
292.0 -229.0 106.9 79 62 34
293.0 -229.0 106.9 75 59 28
294.0 -229.0 106.9 79 61 29
295.0 -229.0 106.9 80 61 30
296.0 -229.0 106.9 79 61 31
297.0 -229.0 106.9 78 59 30
298.0 -229.0 106.9 79 59 31
299.0 -229.0 106.9 78 58 31
300.0 -229.0 106.9 75 60 32
301.0 -229.0 106.9 75 56 29
302.0 -229.0 106.9 72 56 29
303.0 -229.0 106.9 70 56 27
304.0 -229.0 106.9 72 57 28
305.0 -229.0 106.9 69 53 26
306.0 -229.0 106.9 67 52 26
307.0 -229.0 106.9 65 50 22
308.0 -229.0 106.9 69 54 27
309.0 -229.0 106.9 70 53 26
310.0 -229.0 106.9 72 55 28
311.0 -229.0 106.9 77 58 30
312.0 -229.0 106.9 81 62 30
313.0 -229.0 106.9 83 64 30
314.0 -229.0 106.9 88 68 36
315.0 -229.0 106.9 87 66 33
316.0 -229.0 107.7 89 68 34
317.0 -229.0 107.7 87 68 36
318.0 -229.0 107.7 86 66 35
319.0 -229.0 107.7 85 64 33
320.0 -229.0 106.9 85 67 33
321.0 -229.0 106.9 83 63 30
322.0 -229.0 106.9 81 65 33
323.0 -229.0 106.9 82 62 27
324.0 -229.0 106.9 80 63 29
325.0 -229.0 106.9 79 59 27
326.0 -229.0 106.9 82 61 31
327.0 -229.0 106.9 79 60 30
328.0 -229.0 106.9 79 62 33
329.0 -229.0 106.9 75 57 28
330.0 -229.0 106.9 76 62 32
331.0 -229.0 106.9 77 59 29
332.0 -229.0 106.9 78 62 35
333.0 -229.0 106.9 79 61 32
334.0 -229.0 106.9 79 62 34
335.0 -229.0 107.7 77 60 28
336.0 -229.0 106.9 78 59 28
337.0 -229.0 106.9 79 57 24
338.0 -229.0 106.9 78 58 27
339.0 -229.0 106.9 75 55 28
340.0 -229.0 106.9 73 56 26
341.0 -229.0 106.9 71 56 26
342.0 -229.0 106.9 74 58 29
343.0 -229.0 106.9 72 55 26
344.0 -229.0 106.9 72 58 29
345.0 -229.0 106.9 71 56 29
346.0 -229.0 107.7 70 54 27
347.0 -229.0 107.7 64 52 23
348.0 -229.0 107.7 64 53 25
349.0 -229.0 107.7 67 56 30
350.0 -229.0 106.9 70 58 40
351.0 -229.0 106.9 24 28 23
352.0 -229.0 106.9 8 24 22
353.0 -229.0 106.0 15 27 27
371.0 -229.0 77.6 16 29 26
372.0 -229.0 77.6 18 31 31
373.0 -229.0 77.6 16 28 27
374.0 -229.0 80.1 19 31 30
375.0 -229.0 80.1 19 31 31
376.0 -229.0 81.0 20 32 30
48.0 -230.0 67.6 6 17 12
49.0 -230.0 69.3 6 17 9
50.0 -230.0 69.3 7 19 12
51.0 -230.0 69.3 5 16 11
52.0 -230.0 69.3 7 19 14
53.0 -230.0 69.3 6 15 10
54.0 -230.0 69.3 6 16 12
55.0 -230.0 70.1 7 15 11
56.0 -230.0 70.1 6 14 10
57.0 -230.0 70.1 6 15 11
58.0 -230.0 70.1 7 17 13
59.0 -230.0 70.1 6 16 11
60.0 -230.0 70.1 8 17 15
61.0 -230.0 70.1 6 16 13
62.0 -230.0 70.1 6 17 13
63.0 -230.0 70.1 8 17 12
64.0 -230.0 70.1 7 16 11
65.0 -230.0 70.1 8 17 11
66.0 -230.0 70.1 6 17 12
67.0 -230.0 70.1 5 15 11
68.0 -230.0 70.1 6 16 11
69.0 -230.0 70.1 4 13 8
70.0 -230.0 70.1 6 14 11
71.0 -230.0 70.1 5 13 9
72.0 -230.0 70.1 5 15 11
73.0 -230.0 71.0 5 14 8
74.0 -230.0 71.0 6 16 10
75.0 -230.0 71.8 5 14 9
76.0 -230.0 72.6 5 14 10
77.0 -230.0 74.3 4 12 9
78.0 -230.0 76.0 6 16 13
79.0 -230.0 76.8 9 18 16
80.0 -230.0 78.5 13 22 21
81.0 -230.0 79.3 10 18 15
82.0 -230.0 80.1 8 16 14
83.0 -230.0 80.1 8 15 13
84.0 -230.0 80.1 10 18 17
85.0 -230.0 80.1 7 13 10
86.0 -230.0 80.1 8 15 12
87.0 -230.0 80.1 7 12 9
88.0 -230.0 80.1 6 14 12
89.0 -230.0 80.1 6 13 11
90.0 -230.0 80.1 8 17 13
91.0 -230.0 80.1 6 15 12
92.0 -230.0 80.1 6 17 13
93.0 -230.0 77.6 6 15 11
94.0 -230.0 76.0 7 15 13
95.0 -230.0 75.1 6 14 10
96.0 -230.0 75.1 7 16 11
97.0 -230.0 75.1 5 13 8
98.0 -230.0 75.1 4 13 10
99.0 -230.0 75.1 3 13 8
100.0 -230.0 74.3 5 14 11
101.0 -230.0 74.3 4 13 8
102.0 -230.0 74.3 6 15 11
103.0 -230.0 74.3 4 11 7
104.0 -230.0 74.3 5 13 12
105.0 -230.0 74.3 5 11 9
106.0 -230.0 74.3 6 13 10
107.0 -230.0 74.3 5 12 9
108.0 -230.0 74.3 6 13 10
109.0 -230.0 74.3 4 12 9
110.0 -230.0 75.1 6 14 12
111.0 -230.0 75.1 5 12 8
112.0 -230.0 75.1 6 14 11
113.0 -230.0 75.1 5 12 8
114.0 -230.0 75.1 5 14 11
115.0 -230.0 76.0 5 14 9
116.0 -230.0 78.5 7 15 13
117.0 -230.0 81.0 4 12 9
118.0 -230.0 81.8 5 14 12
119.0 -230.0 82.6 7 16 13
120.0 -230.0 83.5 15 25 22
121.0 -230.0 83.5 20 30 26
122.0 -230.0 84.3 14 21 18
123.0 -230.0 86.0 9 18 14
124.0 -230.0 92.7 10 18 16
125.0 -230.0 92.7 15 24 22
130.0 -230.0 132.7 11 22 17
131.0 -230.0 133.6 18 29 27
132.0 -230.0 133.6 21 30 30
133.0 -230.0 134.4 140 149 130
134.0 -230.0 134.4 226 226 217
135.0 -230.0 134.4 205 194 176
136.0 -230.0 134.4 226 208 195
137.0 -230.0 134.4 226 211 193
138.0 -230.0 134.4 226 204 188
139.0 -230.0 135.2 225 206 191
140.0 -230.0 136.1 225 207 189
141.0 -230.0 136.9 223 198 183
142.0 -230.0 136.9 203 181 173
143.0 -230.0 137.7 183 164 155
144.0 -230.0 137.7 175 159 149
145.0 -230.0 137.7 174 159 145
146.0 -230.0 137.7 180 164 150
147.0 -230.0 137.7 180 163 149
148.0 -230.0 137.7 183 165 153
149.0 -230.0 137.7 185 167 153
150.0 -230.0 137.7 184 169 154
151.0 -230.0 137.7 182 166 150
152.0 -230.0 136.9 187 171 153
153.0 -230.0 136.1 185 169 151
154.0 -230.0 136.1 184 169 152
155.0 -230.0 136.9 184 167 150
156.0 -230.0 136.9 184 168 151
157.0 -230.0 136.9 180 163 148
158.0 -230.0 137.7 179 163 147
159.0 -230.0 137.7 167 148 133
160.0 -230.0 137.7 163 148 131
161.0 -230.0 137.7 166 148 133
162.0 -230.0 137.7 167 150 135
163.0 -230.0 137.7 165 149 135
164.0 -230.0 137.7 168 154 141
165.0 -230.0 137.7 176 162 146
166.0 -230.0 137.7 184 165 152
167.0 -230.0 137.7 156 139 123
168.0 -230.0 137.7 155 143 124
169.0 -230.0 136.9 161 144 126
170.0 -230.0 136.9 164 149 131
171.0 -230.0 136.1 166 150 132
172.0 -230.0 135.2 166 152 133
173.0 -230.0 135.2 173 157 137
174.0 -230.0 134.4 179 163 142
175.0 -230.0 134.4 184 167 145
176.0 -230.0 134.4 185 169 149
177.0 -230.0 133.6 185 168 147
178.0 -230.0 133.6 184 167 148
179.0 -230.0 133.6 182 166 147
180.0 -230.0 133.6 183 166 149
181.0 -230.0 133.6 181 160 143
182.0 -230.0 132.7 125 93 82
183.0 -230.0 131.9 67 51 21
184.0 -230.0 112.7 84 65 44
185.0 -230.0 112.7 57 46 23
186.0 -230.0 112.7 41 35 19
187.0 -230.0 112.7 33 30 17
188.0 -230.0 111.9 33 31 18
189.0 -230.0 111.9 31 28 15
190.0 -230.0 112.7 30 30 17
191.0 -230.0 116.0 27 28 15
192.0 -230.0 121.0 27 28 15
193.0 -230.0 121.9 29 28 14
194.0 -230.0 121.9 29 31 16
195.0 -230.0 121.9 28 28 13
196.0 -230.0 119.4 29 29 17
197.0 -230.0 111.0 28 26 13
198.0 -230.0 109.4 30 29 15
199.0 -230.0 108.5 29 28 13
200.0 -230.0 108.5 31 30 17
201.0 -230.0 109.4 28 26 14
202.0 -230.0 109.4 30 29 18
203.0 -230.0 109.4 30 30 15
204.0 -230.0 109.4 30 30 16
205.0 -230.0 109.4 27 26 13
206.0 -230.0 107.7 27 28 16
207.0 -230.0 107.7 27 28 15
208.0 -230.0 107.7 30 29 17
209.0 -230.0 107.7 29 28 15
210.0 -230.0 107.7 27 29 15
211.0 -230.0 106.9 28 27 15
212.0 -230.0 106.9 32 29 18
213.0 -230.0 106.9 31 29 16
214.0 -230.0 106.9 31 30 16
215.0 -230.0 106.9 32 30 18
216.0 -230.0 106.9 34 31 16
217.0 -230.0 106.9 32 30 14
218.0 -230.0 106.9 31 31 17
219.0 -230.0 106.9 31 29 13
220.0 -230.0 108.5 34 32 16
221.0 -230.0 108.5 33 30 15
222.0 -230.0 109.4 33 30 16
223.0 -230.0 109.4 33 29 14
224.0 -230.0 108.5 33 32 16
225.0 -230.0 108.5 31 30 15
226.0 -230.0 107.7 35 32 19
227.0 -230.0 107.7 33 30 15
228.0 -230.0 107.7 36 31 15
229.0 -230.0 107.7 35 30 15
230.0 -230.0 107.7 35 33 19
231.0 -230.0 107.7 35 33 14
232.0 -230.0 107.7 37 34 17
233.0 -230.0 107.7 35 32 16
234.0 -230.0 107.7 37 33 18
235.0 -230.0 107.7 35 31 17
236.0 -230.0 107.7 35 33 17
237.0 -230.0 107.7 34 30 14
238.0 -230.0 107.7 37 33 16
239.0 -230.0 108.5 34 28 13
240.0 -230.0 108.5 36 33 16
241.0 -230.0 108.5 35 30 13
242.0 -230.0 107.7 34 31 16
243.0 -230.0 107.7 31 27 13
244.0 -230.0 106.9 33 31 16
245.0 -230.0 106.9 30 29 14
246.0 -230.0 106.9 29 32 17
247.0 -230.0 106.0 29 29 15
248.0 -230.0 106.0 30 30 16
249.0 -230.0 106.0 28 27 13
250.0 -230.0 106.0 28 27 16
251.0 -230.0 106.0 28 25 13
252.0 -230.0 106.9 30 28 16
253.0 -230.0 106.9 29 29 15
254.0 -230.0 106.9 31 30 19
255.0 -230.0 106.9 29 27 16
256.0 -230.0 106.9 30 30 18
257.0 -230.0 106.9 32 29 15
258.0 -230.0 107.7 31 30 16
259.0 -230.0 107.7 29 29 13
260.0 -230.0 107.7 31 31 16
261.0 -230.0 107.7 30 29 16
262.0 -230.0 107.7 29 30 15
263.0 -230.0 106.9 30 28 14
264.0 -230.0 106.9 31 29 14
265.0 -230.0 106.9 35 31 15
266.0 -230.0 106.9 44 38 17
267.0 -230.0 106.9 56 47 20
268.0 -230.0 106.9 70 56 31
269.0 -230.0 106.9 75 59 31
270.0 -230.0 106.9 77 62 33
271.0 -230.0 106.9 76 61 35
272.0 -230.0 107.7 78 62 33
273.0 -230.0 107.7 77 60 33
274.0 -230.0 106.9 78 62 32
275.0 -230.0 106.9 75 59 30
276.0 -230.0 106.9 77 61 31
277.0 -230.0 106.9 76 60 31
278.0 -230.0 106.9 79 60 31
279.0 -230.0 106.9 76 59 30
280.0 -230.0 106.9 75 60 33
281.0 -230.0 106.9 76 58 30
282.0 -230.0 106.9 75 58 30
283.0 -230.0 106.9 75 57 30
284.0 -230.0 106.9 77 59 32
285.0 -230.0 106.9 78 58 29
286.0 -230.0 106.9 78 62 33
287.0 -230.0 106.9 76 56 29
288.0 -230.0 106.9 80 60 30
289.0 -230.0 106.9 77 59 32
290.0 -230.0 106.9 78 62 33
291.0 -230.0 106.9 80 60 32
292.0 -230.0 106.9 79 62 33
293.0 -230.0 106.9 76 59 29
294.0 -230.0 106.9 76 60 32
295.0 -230.0 106.9 79 62 32
296.0 -230.0 106.9 86 68 40
297.0 -230.0 106.9 77 60 32
298.0 -230.0 106.9 77 60 33
299.0 -230.0 106.9 74 57 28
300.0 -230.0 106.9 75 58 31
301.0 -230.0 106.9 72 56 28
302.0 -230.0 106.9 70 55 29
303.0 -230.0 106.9 70 55 27
304.0 -230.0 106.9 69 57 30
305.0 -230.0 106.9 67 53 27
306.0 -230.0 106.9 67 53 29
307.0 -230.0 106.9 64 51 26
308.0 -230.0 106.9 67 52 29
309.0 -230.0 106.9 66 52 28
310.0 -230.0 106.9 70 54 29
311.0 -230.0 106.9 72 55 29
312.0 -230.0 106.9 79 61 34
313.0 -230.0 106.9 82 63 34
314.0 -230.0 106.9 84 67 37
315.0 -230.0 106.9 84 65 34
316.0 -230.0 106.9 84 66 37
317.0 -230.0 107.7 84 65 35
318.0 -230.0 106.9 82 64 37
319.0 -230.0 106.9 80 62 32
320.0 -230.0 106.9 82 63 33
321.0 -230.0 106.9 79 60 32
322.0 -230.0 106.9 79 62 32
323.0 -230.0 106.9 79 60 29
324.0 -230.0 106.9 79 60 30
325.0 -230.0 106.9 77 59 28
326.0 -230.0 106.9 78 60 31
327.0 -230.0 106.9 77 59 30
328.0 -230.0 106.9 79 62 34
329.0 -230.0 106.9 75 59 29
330.0 -230.0 106.9 77 59 31
331.0 -230.0 106.9 76 59 29
332.0 -230.0 106.9 78 61 29
333.0 -230.0 106.9 79 60 29
334.0 -230.0 106.9 75 59 28
335.0 -230.0 106.9 76 58 27
336.0 -230.0 106.9 75 59 29
337.0 -230.0 106.9 75 58 27
338.0 -230.0 106.9 76 59 29
339.0 -230.0 106.9 74 54 26
340.0 -230.0 106.9 74 57 29
341.0 -230.0 106.9 71 54 28
342.0 -230.0 106.9 74 58 31
343.0 -230.0 106.9 73 57 28
344.0 -230.0 106.9 72 56 28
345.0 -230.0 106.9 72 56 27
346.0 -230.0 107.7 69 56 30
347.0 -230.0 107.7 64 52 25
348.0 -230.0 107.7 66 56 27
349.0 -230.0 106.9 72 59 32
350.0 -230.0 106.9 70 57 38
351.0 -230.0 106.9 22 28 21
352.0 -230.0 106.9 9 25 21
353.0 -230.0 106.0 13 28 24
370.0 -230.0 81.0 15 30 27
371.0 -230.0 81.0 15 30 25
372.0 -230.0 77.6 17 30 28
373.0 -230.0 80.1 17 30 27
374.0 -230.0 81.0 17 30 28
375.0 -230.0 81.0 18 31 29
376.0 -230.0 81.0 19 33 30
377.0 -230.0 81.0 19 33 30
48.0 -231.0 69.3 7 14 12
49.0 -231.0 71.0 6 14 11
50.0 -231.0 71.0 7 15 14
51.0 -231.0 71.0 5 13 10
52.0 -231.0 71.0 6 15 12
53.0 -231.0 71.0 6 13 9
54.0 -231.0 71.0 8 15 12
55.0 -231.0 71.0 6 13 10
56.0 -231.0 71.0 7 15 12
57.0 -231.0 71.0 6 13 10
58.0 -231.0 71.0 7 14 11
59.0 -231.0 71.0 8 14 12
60.0 -231.0 71.0 9 16 12
61.0 -231.0 71.0 7 13 10
62.0 -231.0 71.0 7 15 13
63.0 -231.0 71.0 6 15 11
64.0 -231.0 71.0 7 15 13
65.0 -231.0 71.0 6 14 10
66.0 -231.0 71.0 8 16 13
67.0 -231.0 71.0 6 13 12
68.0 -231.0 71.0 5 13 11
69.0 -231.0 71.0 4 11 8
70.0 -231.0 71.0 6 13 11
71.0 -231.0 71.0 5 12 10
72.0 -231.0 71.0 6 13 10
73.0 -231.0 71.8 5 11 9
74.0 -231.0 71.8 5 12 10
75.0 -231.0 72.6 4 11 7
76.0 -231.0 74.3 5 12 11
77.0 -231.0 76.0 4 11 9
78.0 -231.0 76.8 9 17 16
79.0 -231.0 77.6 13 21 18
80.0 -231.0 78.5 13 23 19
81.0 -231.0 79.3 9 17 14
82.0 -231.0 79.3 7 17 14
83.0 -231.0 80.1 9 17 14
84.0 -231.0 80.1 10 17 16
85.0 -231.0 79.3 6 12 11
86.0 -231.0 79.3 7 15 13
87.0 -231.0 79.3 6 14 12
88.0 -231.0 78.5 7 15 13
89.0 -231.0 78.5 7 13 13
90.0 -231.0 78.5 8 16 13
91.0 -231.0 78.5 7 15 11
92.0 -231.0 77.6 8 17 13
93.0 -231.0 75.1 6 13 11
94.0 -231.0 71.0 7 16 14
95.0 -231.0 71.0 6 13 11
96.0 -231.0 71.0 6 15 11
97.0 -231.0 71.0 6 12 10
98.0 -231.0 71.0 7 16 13
99.0 -231.0 71.0 5 12 10
100.0 -231.0 71.0 5 13 11
101.0 -231.0 71.0 5 13 9
102.0 -231.0 71.0 6 13 12
103.0 -231.0 71.0 5 12 10
104.0 -231.0 71.0 7 15 13
105.0 -231.0 71.0 6 15 11
106.0 -231.0 71.0 8 18 12
107.0 -231.0 70.1 6 15 11
108.0 -231.0 70.1 7 16 14
109.0 -231.0 71.0 6 14 12
110.0 -231.0 71.0 6 15 13
111.0 -231.0 70.1 7 13 11
112.0 -231.0 70.1 8 15 12
113.0 -231.0 71.0 7 14 10
114.0 -231.0 71.0 8 15 13
115.0 -231.0 71.8 7 14 10
116.0 -231.0 76.0 8 14 11
117.0 -231.0 79.3 6 13 10
118.0 -231.0 81.0 8 16 14
119.0 -231.0 82.6 8 14 12
120.0 -231.0 82.6 15 23 21
121.0 -231.0 83.5 21 28 26
122.0 -231.0 84.3 15 23 21
123.0 -231.0 86.0 9 17 12
124.0 -231.0 92.7 11 22 16
125.0 -231.0 92.7 16 24 22
130.0 -231.0 132.7 13 21 17
131.0 -231.0 132.7 19 28 25
132.0 -231.0 133.6 19 29 30
133.0 -231.0 133.6 140 148 130
134.0 -231.0 133.6 225 226 217
135.0 -231.0 133.6 206 193 175
136.0 -231.0 133.6 226 212 197
137.0 -231.0 133.6 227 213 195
138.0 -231.0 133.6 227 207 192
139.0 -231.0 134.4 227 209 196
140.0 -231.0 135.2 228 210 194
141.0 -231.0 136.1 229 209 193
142.0 -231.0 136.9 229 211 194
143.0 -231.0 136.9 225 204 190
144.0 -231.0 137.7 206 184 175
145.0 -231.0 137.7 187 168 158
146.0 -231.0 137.7 191 174 165
147.0 -231.0 137.7 195 177 166
148.0 -231.0 137.7 193 176 163
149.0 -231.0 137.7 196 177 164
150.0 -231.0 137.7 195 176 164
151.0 -231.0 137.7 192 175 162
152.0 -231.0 136.1 195 178 163
153.0 -231.0 136.1 194 175 160
154.0 -231.0 136.1 192 176 160
155.0 -231.0 136.9 191 174 158
156.0 -231.0 136.9 191 174 158
157.0 -231.0 136.9 186 170 154
158.0 -231.0 136.9 184 168 152
159.0 -231.0 137.7 175 158 142
160.0 -231.0 137.7 176 160 144
161.0 -231.0 136.9 180 162 146
162.0 -231.0 136.9 187 171 156
163.0 -231.0 137.7 201 189 175
164.0 -231.0 136.9 217 210 193
165.0 -231.0 136.9 231 228 208
166.0 -231.0 137.7 237 216 195
167.0 -231.0 137.7 178 157 137
168.0 -231.0 136.9 181 166 144
169.0 -231.0 136.9 178 162 138
170.0 -231.0 136.1 181 164 143
171.0 -231.0 135.2 181 165 143
172.0 -231.0 135.2 184 168 148
173.0 -231.0 135.2 183 167 148
174.0 -231.0 134.4 185 170 150
175.0 -231.0 134.4 186 170 149
176.0 -231.0 134.4 187 171 151
177.0 -231.0 133.6 185 169 149
178.0 -231.0 133.6 184 169 150
179.0 -231.0 133.6 183 167 148
180.0 -231.0 133.6 183 167 148
181.0 -231.0 133.6 184 165 146
182.0 -231.0 133.6 123 98 91
183.0 -231.0 132.7 27 24 6
184.0 -231.0 131.1 62 54 40
185.0 -231.0 112.7 30 31 15
186.0 -231.0 111.9 25 27 17
187.0 -231.0 111.9 18 22 11
188.0 -231.0 111.9 14 22 11
189.0 -231.0 111.9 16 20 12
190.0 -231.0 111.9 17 23 14
191.0 -231.0 116.0 14 20 11
192.0 -231.0 123.5 14 20 13
193.0 -231.0 131.9 16 19 12
194.0 -231.0 131.9 14 21 13
195.0 -231.0 131.1 14 18 11
200.0 -231.0 106.9 14 21 13
201.0 -231.0 108.5 14 21 11
202.0 -231.0 108.5 13 20 12
203.0 -231.0 108.5 13 20 10
204.0 -231.0 108.5 15 20 12
205.0 -231.0 106.9 12 20 11
206.0 -231.0 106.9 13 21 13
207.0 -231.0 106.9 13 20 12
208.0 -231.0 106.9 14 21 14
209.0 -231.0 106.9 13 19 12
210.0 -231.0 106.9 14 20 13
211.0 -231.0 106.9 12 17 10
212.0 -231.0 106.9 13 18 13
213.0 -231.0 106.9 11 18 12
214.0 -231.0 106.0 13 20 14
215.0 -231.0 105.2 14 20 12
216.0 -231.0 104.3 13 20 13
217.0 -231.0 104.3 12 19 10
218.0 -231.0 104.3 12 21 13
219.0 -231.0 69.3 12 20 11
220.0 -231.0 68.5 16 22 15
221.0 -231.0 70.1 15 20 12
222.0 -231.0 70.1 16 23 15
223.0 -231.0 69.3 17 23 13
224.0 -231.0 69.3 18 26 17
225.0 -231.0 70.1 42 42 36
226.0 -231.0 70.1 61 55 56
227.0 -231.0 71.8 45 42 37
228.0 -231.0 71.8 26 28 20
229.0 -231.0 71.8 19 22 13
230.0 -231.0 66.8 23 26 18
231.0 -231.0 66.8 18 22 15
232.0 -231.0 66.8 19 25 17
233.0 -231.0 68.5 19 23 14
234.0 -231.0 106.9 19 25 16
235.0 -231.0 106.9 19 25 15
236.0 -231.0 68.5 19 25 17
237.0 -231.0 68.5 16 23 13
238.0 -231.0 68.5 19 26 15
239.0 -231.0 107.7 17 22 13
240.0 -231.0 107.7 18 22 14
241.0 -231.0 107.7 14 20 12
242.0 -231.0 106.9 15 20 14
243.0 -231.0 106.9 13 17 11
244.0 -231.0 106.0 14 19 13
245.0 -231.0 105.2 13 19 11
246.0 -231.0 104.3 14 18 12
247.0 -231.0 104.3 12 17 10
248.0 -231.0 103.5 13 19 12
249.0 -231.0 103.5 11 17 10
250.0 -231.0 103.5 11 20 12
251.0 -231.0 104.3 11 18 12
252.0 -231.0 106.0 15 22 15
253.0 -231.0 106.9 14 20 12
254.0 -231.0 106.9 11 19 11
255.0 -231.0 106.9 10 18 10
256.0 -231.0 106.0 13 20 13
257.0 -231.0 106.0 12 19 10
258.0 -231.0 106.0 13 21 13
259.0 -231.0 106.0 12 20 11
260.0 -231.0 106.0 14 21 13
261.0 -231.0 106.0 12 19 11
262.0 -231.0 106.0 14 22 13
263.0 -231.0 106.0 14 20 13
264.0 -231.0 106.0 12 21 13
265.0 -231.0 106.0 14 22 13
266.0 -231.0 106.0 16 23 14
267.0 -231.0 106.0 16 23 13
268.0 -231.0 106.0 20 28 16
269.0 -231.0 106.0 21 28 13
270.0 -231.0 106.0 21 30 18
271.0 -231.0 106.0 22 28 15
272.0 -231.0 106.0 19 25 13
273.0 -231.0 106.0 14 24 11
274.0 -231.0 106.0 15 25 12
275.0 -231.0 104.3 16 23 11
276.0 -231.0 104.3 16 26 12
277.0 -231.0 104.3 17 25 10
278.0 -231.0 104.3 18 26 12
279.0 -231.0 104.3 17 23 10
280.0 -231.0 105.2 17 27 13
281.0 -231.0 105.2 15 23 10
282.0 -231.0 106.0 17 25 12
283.0 -231.0 106.0 17 21 10
284.0 -231.0 106.0 15 24 12
285.0 -231.0 106.0 17 22 9
286.0 -231.0 106.0 16 25 13
287.0 -231.0 106.0 16 23 8
288.0 -231.0 106.0 16 25 12
289.0 -231.0 106.0 16 24 9
290.0 -231.0 105.2 18 26 12
291.0 -231.0 104.3 17 24 10
292.0 -231.0 104.3 18 27 13
293.0 -231.0 104.3 17 26 11
294.0 -231.0 104.3 19 29 16
295.0 -231.0 105.2 20 29 17
296.0 -231.0 105.2 26 35 21
297.0 -231.0 105.2 20 28 12
298.0 -231.0 105.2 20 28 14
299.0 -231.0 105.2 22 30 14
300.0 -231.0 104.3 36 40 22
301.0 -231.0 104.3 37 39 21
302.0 -231.0 105.2 38 39 22
303.0 -231.0 105.2 36 37 20
304.0 -231.0 105.2 32 35 21
305.0 -231.0 106.0 25 31 17
306.0 -231.0 106.0 33 36 22
307.0 -231.0 106.0 35 37 22
308.0 -231.0 106.0 36 40 24
309.0 -231.0 106.0 36 37 22
310.0 -231.0 106.0 41 42 26
311.0 -231.0 106.0 38 39 23
312.0 -231.0 106.0 40 42 26
313.0 -231.0 106.0 40 41 24
314.0 -231.0 106.0 43 46 28
315.0 -231.0 106.0 42 44 25
316.0 -231.0 106.9 48 48 30
317.0 -231.0 106.9 45 44 28
318.0 -231.0 106.9 44 47 27
319.0 -231.0 106.9 43 43 24
320.0 -231.0 106.9 39 42 25
321.0 -231.0 106.9 35 40 23
322.0 -231.0 106.9 37 40 24
323.0 -231.0 106.9 38 41 23
324.0 -231.0 106.9 37 39 22
325.0 -231.0 106.9 35 38 20
326.0 -231.0 106.9 35 40 20
327.0 -231.0 106.9 36 38 20
328.0 -231.0 106.9 37 38 24
329.0 -231.0 106.9 36 37 20
330.0 -231.0 106.9 34 38 22
331.0 -231.0 106.9 35 35 18
332.0 -231.0 106.9 37 38 20
333.0 -231.0 106.9 34 36 19
334.0 -231.0 106.9 33 36 19
335.0 -231.0 106.9 35 36 18
336.0 -231.0 106.9 36 37 21
337.0 -231.0 106.9 31 34 16
338.0 -231.0 106.9 34 36 19
339.0 -231.0 106.9 32 33 16
340.0 -231.0 106.9 35 37 19
341.0 -231.0 106.9 37 35 20
342.0 -231.0 106.9 37 38 22
343.0 -231.0 106.9 37 36 20
344.0 -231.0 106.9 36 38 22
345.0 -231.0 106.9 36 37 21
346.0 -231.0 107.7 36 38 24
347.0 -231.0 107.7 34 34 19
348.0 -231.0 107.7 35 36 21
349.0 -231.0 106.9 35 38 19
350.0 -231.0 106.9 41 44 28
351.0 -231.0 106.9 20 29 23
352.0 -231.0 106.9 12 26 23
353.0 -231.0 106.0 13 26 24
368.0 -231.0 83.5 15 29 28
369.0 -231.0 84.3 15 29 26
370.0 -231.0 83.5 15 31 29
371.0 -231.0 82.6 15 29 26
372.0 -231.0 81.0 15 31 29
373.0 -231.0 81.0 14 28 26
374.0 -231.0 82.6 19 32 28
375.0 -231.0 82.6 19 29 26
376.0 -231.0 81.8 18 31 30
377.0 -231.0 81.0 18 31 28
48.0 -232.0 69.3 7 13 11
49.0 -232.0 71.0 6 13 11
50.0 -232.0 71.0 6 14 12
51.0 -232.0 71.0 6 11 9
52.0 -232.0 71.0 7 14 14
53.0 -232.0 71.0 6 13 10
54.0 -232.0 71.0 8 14 12
55.0 -232.0 71.0 6 14 10
56.0 -232.0 71.0 8 16 13
57.0 -232.0 71.0 6 13 10
58.0 -232.0 71.0 8 17 14
59.0 -232.0 71.0 6 13 10
60.0 -232.0 71.0 8 16 13
61.0 -232.0 71.0 6 13 10
62.0 -232.0 71.0 8 15 13
63.0 -232.0 71.0 8 14 10
64.0 -232.0 71.0 7 14 12
65.0 -232.0 71.0 6 13 11
66.0 -232.0 71.0 8 13 12
67.0 -232.0 71.0 5 11 9
68.0 -232.0 71.0 6 15 11
69.0 -232.0 71.0 5 12 9
70.0 -232.0 71.0 6 14 11
71.0 -232.0 71.0 5 12 9
72.0 -232.0 71.0 6 14 11
73.0 -232.0 71.8 4 12 9
74.0 -232.0 71.8 6 14 11
75.0 -232.0 72.6 6 11 10
76.0 -232.0 74.3 6 14 12
77.0 -232.0 76.0 6 13 10
78.0 -232.0 76.8 11 19 16
79.0 -232.0 77.6 13 22 18
80.0 -232.0 78.5 13 23 19
81.0 -232.0 78.5 6 14 12
82.0 -232.0 79.3 8 16 14
83.0 -232.0 79.3 9 17 14
84.0 -232.0 79.3 7 16 13
85.0 -232.0 78.5 6 14 9
86.0 -232.0 78.5 9 16 13
87.0 -232.0 77.6 7 14 11
88.0 -232.0 77.6 7 15 14
89.0 -232.0 77.6 8 15 14
90.0 -232.0 76.8 9 16 15
91.0 -232.0 76.0 9 14 11
92.0 -232.0 75.1 10 15 14
93.0 -232.0 71.0 7 13 11
94.0 -232.0 69.3 8 15 13
95.0 -232.0 68.5 7 14 12
96.0 -232.0 68.5 9 17 14
97.0 -232.0 68.5 11 16 13
98.0 -232.0 68.5 13 19 17
99.0 -232.0 68.5 11 17 14
100.0 -232.0 68.5 9 17 12
101.0 -232.0 68.5 10 16 12
102.0 -232.0 68.5 12 18 15
103.0 -232.0 68.5 11 17 14
104.0 -232.0 68.5 22 27 23
105.0 -232.0 68.5 31 29 26
106.0 -232.0 68.5 31 30 31
107.0 -232.0 68.5 29 28 25
108.0 -232.0 68.5 24 25 24
109.0 -232.0 68.5 19 20 19
110.0 -232.0 68.5 17 21 20
111.0 -232.0 68.5 14 19 16
112.0 -232.0 69.3 14 22 18
113.0 -232.0 69.3 15 20 18
114.0 -232.0 70.1 16 23 17
115.0 -232.0 71.0 17 22 16
116.0 -232.0 71.8 18 23 18
117.0 -232.0 79.3 13 20 16
118.0 -232.0 81.0 14 20 17
119.0 -232.0 81.8 6 13 10
120.0 -232.0 82.6 15 23 21
121.0 -232.0 83.5 21 28 26
122.0 -232.0 83.5 16 24 21
123.0 -232.0 86.8 9 16 13
124.0 -232.0 92.7 10 18 16
125.0 -232.0 92.7 16 25 23
130.0 -232.0 132.7 11 23 17
131.0 -232.0 132.7 18 28 27
132.0 -232.0 133.6 20 27 28
133.0 -232.0 133.6 141 149 132
134.0 -232.0 133.6 226 228 217
135.0 -232.0 133.6 204 194 176
136.0 -232.0 133.6 226 210 196
137.0 -232.0 133.6 226 213 196
138.0 -232.0 133.6 227 209 193
139.0 -232.0 133.6 228 211 196
140.0 -232.0 135.2 229 210 195
141.0 -232.0 135.2 230 211 195
142.0 -232.0 136.9 231 214 199
143.0 -232.0 136.9 232 216 199
144.0 -232.0 137.7 234 219 202
145.0 -232.0 137.7 233 212 195
146.0 -232.0 137.7 230 219 207
147.0 -232.0 137.7 237 231 220
148.0 -232.0 137.7 239 226 214
149.0 -232.0 137.7 238 223 211
150.0 -232.0 137.7 234 221 208
151.0 -232.0 136.9 231 217 201
152.0 -232.0 136.1 229 209 193
153.0 -232.0 136.1 223 198 184
154.0 -232.0 136.1 216 194 181
155.0 -232.0 136.9 208 189 174
156.0 -232.0 136.9 207 188 175
157.0 -232.0 136.9 200 182 168
158.0 -232.0 136.9 197 179 167
159.0 -232.0 136.9 192 175 161
160.0 -232.0 136.9 200 187 174
161.0 -232.0 136.9 215 205 190
162.0 -232.0 136.9 230 226 210
163.0 -232.0 136.9 237 236 220
164.0 -232.0 136.9 240 240 224
165.0 -232.0 136.9 242 241 221
166.0 -232.0 136.9 244 224 200
167.0 -232.0 136.9 183 159 141
168.0 -232.0 136.9 183 168 148
169.0 -232.0 136.1 179 162 142
170.0 -232.0 136.1 180 164 146
171.0 -232.0 135.2 182 166 146
172.0 -232.0 135.2 185 169 150
173.0 -232.0 135.2 185 169 149
174.0 -232.0 134.4 186 170 152
175.0 -232.0 134.4 187 169 149
176.0 -232.0 134.4 189 174 153
177.0 -232.0 133.6 187 169 150
178.0 -232.0 133.6 185 169 152
179.0 -232.0 133.6 184 167 148
180.0 -232.0 133.6 186 170 148
181.0 -232.0 133.6 186 166 147
182.0 -232.0 133.6 131 105 101
183.0 -232.0 132.7 27 22 8
184.0 -232.0 131.9 72 63 52
185.0 -232.0 112.7 40 39 25
186.0 -232.0 111.9 39 35 26
187.0 -232.0 111.9 24 27 19
188.0 -232.0 111.0 18 21 14
189.0 -232.0 111.0 21 23 16
190.0 -232.0 111.0 20 25 18
191.0 -232.0 111.9 17 21 13
192.0 -232.0 131.9 20 21 13
193.0 -232.0 132.7 17 21 13
194.0 -232.0 132.7 17 20 16
195.0 -232.0 132.7 6 13 10
196.0 -232.0 131.1 9 16 14
202.0 -232.0 104.3 11 19 15
203.0 -232.0 106.0 10 17 12
204.0 -232.0 106.0 11 20 16
205.0 -232.0 106.0 15 20 16
206.0 -232.0 105.2 11 18 14
207.0 -232.0 105.2 9 15 11
208.0 -232.0 105.2 10 18 14
209.0 -232.0 105.2 10 14 12
210.0 -232.0 105.2 8 15 13
211.0 -232.0 105.2 5 11 9
212.0 -232.0 105.2 6 14 11
213.0 -232.0 104.3 5 12 8
214.0 -232.0 69.3 6 13 11
215.0 -232.0 69.3 5 13 10
216.0 -232.0 70.1 6 14 11
217.0 -232.0 70.1 6 12 9
218.0 -232.0 68.5 10 17 13
219.0 -232.0 66.8 11 17 13
221.0 -232.0 66.8 9 15 12
222.0 -232.0 66.8 11 19 13
223.0 -232.0 66.8 11 20 13
224.0 -232.0 66.8 20 32 24
225.0 -232.0 66.8 42 49 42
226.0 -232.0 66.8 44 47 38
227.0 -232.0 66.8 29 37 27
228.0 -232.0 66.8 16 25 16
229.0 -232.0 66.8 14 21 14
233.0 -232.0 66.8 17 23 14
234.0 -232.0 68.5 17 24 16
235.0 -232.0 68.5 15 21 15
236.0 -232.0 66.8 18 25 16
237.0 -232.0 66.8 16 23 14
238.0 -232.0 66.8 18 25 17
239.0 -232.0 68.5 16 21 15
240.0 -232.0 68.5 13 20 15
241.0 -232.0 69.3 10 17 12
242.0 -232.0 68.5 11 17 13
243.0 -232.0 69.3 9 15 10
244.0 -232.0 69.3 9 15 11
245.0 -232.0 70.1 8 15 10
246.0 -232.0 71.0 9 15 11
247.0 -232.0 71.0 9 14 10
248.0 -232.0 96.8 8 14 11
249.0 -232.0 99.3 7 15 12
250.0 -232.0 100.2 8 14 12
251.0 -232.0 101.0 9 14 11
252.0 -232.0 103.5 8 16 11
253.0 -232.0 104.3 7 15 10
254.0 -232.0 104.3 7 15 11
